ply
format ascii 1.0
element vertex 827
property float x
property float y
property float z
property uchar red
property uchar green
property uchar blue
end_header
-18815.388671875 8010.51171875 93.1454849243164 0 0 0
-18332.212890625 7962.4765625 92.5869369506836 0 0 0
-17836.029296875 7906.693359375 91.93829345703125 0 0 0
-17273.185546875 7818.388671875 90.9114990234375 0 0 0
-16753.615234375 7746.29541015625 90.07320404052734 0 0 0
-16326.0439453125 7714.50439453125 89.70353698730469 0 0 0
-15955.927734375 7709.0439453125 89.64004516601562 0 0 0
-15621.2392578125 7720.84228515625 89.77723693847656 0 0 0
-15281.14453125 7730.46142578125 89.88908386230469 0 0 0
-14970.37109375 7755.734375 90.1829605102539 0 0 0
-14828.7900390625 7872.07373046875 91.5357437133789 0 0 0
-14740.40625 8023.2587890625 93.29370880126953 0 0 0
-14624.0361328125 8166.66943359375 94.96127319335938 0 0 0
-14544.28125 8338.7216796875 96.96187591552734 0 0 0
-14531.2314453125 8559.4921875 99.52898406982422 0 0 0
-14506.20703125 8785.44921875 102.15638732910156 0 0 0
-14454.298828125 9007.7509765625 104.74129486083984 0 0 0
-14389.1083984375 9234.80078125 107.38140869140625 0 0 0
-14311.20703125 9467.4140625 110.0862045288086 0 0 0
-14237.3154296875 9717.533203125 112.99456787109375 0 0 0
-14095.3193359375 9936.044921875 115.53540802001953 0 0 0
-13865.6826171875 10105.4970703125 117.50578308105469 0 0 0
-13513.2900390625 10194.236328125 118.53762817382812 0 0 0
-13266.662109375 10372.1171875 120.60601806640625 0 0 0
-13042.5810546875 10581.716796875 123.04322052001953 0 0 0
-12802.263671875 10794.0654296875 125.51239013671875 0 0 0
-12027.0986328125 10554.392578125 122.72549438476562 0 0 0
-11129.0458984375 10181.892578125 118.39410400390625 0 0 0
-10541.2119140625 10072.7138671875 117.12458038330078 0 0 0
-10188.443359375 10188.443359375 118.47027587890625 0 0 0
-9861.728515625 10342.7890625 120.26498413085938 0 0 0
-8597.033203125 9478.779296875 110.21836853027344 0 0 0
-8298.7646484375 9644.509765625 112.14546203613281 0 0 0
-15060.494140625 18502.892578125 215.14991760253906 0 0 0
-20520.0 26738.181640625 310.9090881347656 0 0 0
-22237.02734375 30844.91015625 358.6617431640625 238 238 238
-22161.728515625 32860.4921875 382.0987548828125 235 235 235
-21310.763671875 33939.36328125 394.6437683105469 237 237 237
-19956.60546875 34325.36328125 399.1321105957031 246 246 246
-18068.630859375 33780.484375 392.79632568359375 246 246 246
-15652.1337890625 32049.607421875 372.66986083984375 250 250 250
-12756.1318359375 28869.140625 335.68768310546875 219 219 219
-8474.6552734375 21435.89453125 249.25457763671875 0 0 0
-4370.23388671875 12528.00390625 145.67446899414062 0 0 0
-2713.26708984375 8974.65234375 104.3564224243164 0 0 0
-2580.648681640625 10087.990234375 117.30221557617188 0 0 0
-2337.52392578125 11168.169921875 129.86244201660156 0 0 0
-1911.297607421875 11740.828125 136.52125549316406 0 0 0
-1519.31201171875 13066.0830078125 151.9311981201172 0 0 0
-964.640869140625 13826.51953125 160.7734832763672 0 0 0
-330.532958984375 14212.9169921875 165.2664794921875 0 0 0
340.801025390625 14654.4443359375 170.4005126953125 0 0 0
1053.8475341796875 15105.1474609375 175.64125061035156 0 0 0
1803.078125 15506.4716796875 180.3078155517578 0 0 0
2613.387939453125 16053.66796875 186.67056274414062 0 0 0
3491.3349609375 16680.822265625 193.9630584716797 0 0 0
4416.03466796875 17262.681640625 200.72885131835938 0 0 0
5359.8125 17728.611328125 206.14663696289062 0 0 0
6308.82763671875 18085.3046875 210.29425048828125 0 0 0
7231.45263671875 18291.322265625 212.68978881835938 0 0 0
8115.265625 18366.126953125 213.5596160888672 0 0 0
8967.2587890625 18361.529296875 213.50616455078125 0 0 0
9777.1337890625 18278.98828125 212.54638671875 0 0 0
10498.6552734375 18057.685546875 209.9730987548828 0 0 0
11136.802734375 17736.390625 206.23709106445312 0 0 0
11910.6640625 17660.640625 205.3562774658203 0 0 0
12897.6376953125 17890.271484375 208.0264129638672 0 0 0
14135.4140625 18418.873046875 214.17294311523438 0 0 0
15872.001953125 19499.888671875 226.74288940429688 0 0 0
29128.021484375 33851.484375 393.6219177246094 0 0 0
37576.7109375 41430.734375 481.7527160644531 241 241 241
39406.1953125 41328.44921875 480.5633544921875 228 228 228
41328.77734375 41328.77734375 480.5671691894531 231 231 231
43083.9453125 41169.10546875 478.71051025390625 235 235 235
44951.46484375 41125.80859375 478.2070617675781 240 240 240
46865.4296875 41126.80859375 478.21868896484375 242 242 242
48760.60546875 41111.8828125 478.0451354980469 244 244 244
50612.56640625 41063.02734375 477.47705078125 243 243 243
52347.12109375 40925.93359375 475.8829345703125 241 241 241
54173.3515625 40867.6171875 475.204833984375 236 236 236
55811.9375 40676.49609375 472.9825134277344 231 231 231
57769.375 40722.67578125 473.51947021484375 226 226 226
57664.5625 39358.3515625 457.6552734375 255 255 255
41582.41796875 27508.3671875 319.86474609375 0 0 0
19929.0 12790.25390625 148.723876953125 0 0 0
21692.005859375 13518.2060546875 157.18844604492188 0 0 0
24106.16015625 14599.5048828125 169.76168823242188 0 0 0
25005.44140625 14729.232421875 171.2701416015625 0 0 0
25312.17578125 14512.3134765625 168.74783325195312 0 0 0
25690.8125 14346.8173828125 166.82345581054688 0 0 0
26252.67578125 14289.4306640625 166.1561737060547 0 0 0
26686.001953125 14166.6435546875 164.72840881347656 0 0 0
27085.599609375 14032.298828125 163.166259765625 0 0 0
27487.564453125 13905.4736328125 161.69155883789062 0 0 0
27854.013671875 13766.92578125 160.08053588867188 0 0 0
28195.2890625 13622.4423828125 158.40049743652344 0 0 0
28545.083984375 13488.3369140625 156.84112548828125 0 0 0
29048.45703125 13431.0068359375 156.17449951171875 0 0 0
29797.07421875 13487.0966796875 156.8267059326172 0 0 0
30876.205078125 13687.390625 159.15570068359375 0 0 0
32091.6953125 13938.8173828125 162.0792694091797 0 0 0
33366.3828125 14205.490234375 165.18011474609375 0 0 0
34487.546875 14397.712890625 167.41526794433594 0 0 0
35440.2109375 14513.6103515625 168.76290893554688 0 0 0
36363.75 14613.470703125 169.924072265625 0 0 0
37175.4765625 14665.5546875 170.5297088623047 0 0 0
37889.91015625 14678.072265625 170.67526245117188 0 0 0
38418.15625 14619.2978515625 169.99183654785156 0 0 0
39422.00390625 14740.40234375 171.4000244140625 0 0 0
40644.53125 14937.734375 173.694580078125 0 0 0
42688.43359375 15425.2333984375 179.36317443847656 0 0 0
44603.1171875 15850.6943359375 184.31039428710938 0 0 0
47680.74609375 16668.87890625 193.8241729736328 0 0 0
-23704.63671875 7775.12109375 94.81855010986328 0 0 0
-23320.6328125 7773.5439453125 94.79931640625 0 0 0
-22882.796875 7753.67529296875 94.55701446533203 0 0 0
-22660.009765625 7807.23046875 95.21012878417969 0 0 0
-22364.00390625 7836.95849609375 95.57266235351562 0 0 0
-21948.677734375 7825.1806640625 95.42903137207031 0 0 0
-21482.091796875 7794.38720703125 95.05350494384766 0 0 0
-21303.69140625 7868.93115234375 95.96257781982422 0 0 0
-21090.287109375 7933.0439453125 96.74443817138672 0 0 0
-20705.419921875 7933.85205078125 96.7542953491211 0 0 0
-20240.51953125 7903.44140625 96.38343048095703 0 0 0
-19773.7890625 7871.11962890625 95.98926544189453 0 0 0
-19299.91796875 7834.61962890625 95.54414367675781 0 0 0
-18804.708984375 7787.80859375 94.97327423095703 0 0 0
-18301.712890625 7735.775390625 94.3387222290039 0 0 0
-17746.78515625 7659.138671875 93.40412902832031 0 0 0
-17235.16015625 7598.2958984375 92.66214752197266 0 0 0
-16835.328125 7585.1484375 92.5018081665039 0 0 0
-16506.419921875 7604.0810546875 92.73269653320312 0 0 0
-16238.927734375 7652.828125 93.3271713256836 0 0 0
-15810.775390625 7626.3740234375 93.00456237792969 0 0 0
-15633.9462890625 7722.79248046875 94.1803970336914 0 0 0
-15565.9541015625 7879.06298828125 96.08613586425781 0 0 0
-15485.310546875 8036.68017578125 98.00829315185547 0 0 0
-15436.787109375 8219.587890625 100.23887634277344 0 0 0
-15472.193359375 8458.1328125 103.14795684814453 0 0 0
-15498.2890625 8704.5185546875 106.15266418457031 0 0 0
-15503.33984375 8952.6328125 109.17845153808594 0 0 0
-15487.8583984375 9202.9306640625 112.2308578491211 0 0 0
-15454.185546875 9457.0390625 115.32974243164062 0 0 0
-15394.40625 9710.3173828125 118.41851043701172 0 0 0
-15326.7119140625 9974.52734375 121.64057159423828 0 0 0
-15142.6796875 10177.8662109375 124.12032318115234 0 0 0
-14844.0634765625 10315.3662109375 125.79714965820312 0 0 0
-14473.7529296875 10410.9453125 126.9627456665039 0 0 0
-14310.01171875 10667.4638671875 130.0910186767578 0 0 0
-13998.3212890625 10828.8896484375 132.05963134765625 0 0 0
-13198.2939453125 10610.392578125 129.39503479003906 0 0 0
-12406.779296875 10381.1826171875 126.59978485107422 0 0 0
-11982.7763671875 10453.060546875 127.47634887695312 0 0 0
-11455.8388671875 10437.5419921875 127.28709411621094 0 0 0
-10380.4189453125 9897.6083984375 120.70254516601562 0 0 0
-18177.36328125 18177.36328125 221.6751708984375 0 0 0
-27490.31640625 28900.07421875 352.43994140625 0 0 0
-29670.189453125 32877.77734375 400.9485168457031 238 238 238
-28618.66796875 33524.72265625 408.8381042480469 246 246 246
-26967.771484375 33505.4140625 408.60260009765625 250 250 250
-25225.85546875 33363.23046875 406.86865234375 253 253 253
-23486.5546875 33205.12890625 404.9405822753906 255 255 255
-21772.486328125 33061.921875 403.1941833496094 255 255 255
-20197.822265625 33124.4296875 403.9564514160156 255 255 255
-18610.525390625 33175.28515625 404.5766296386719 255 255 255
-16975.44140625 33142.52734375 404.1771545410156 255 255 255
-15302.38671875 33020.94140625 402.69439697265625 255 255 255
-13586.21484375 32766.751953125 399.59454345703125 253 253 253
-11940.1767578125 32636.482421875 398.0058898925781 243 243 243
-9658.826171875 30462.451171875 371.4933166503906 0 0 0
-5869.13037109375 21875.849609375 266.7786560058594 0 0 0
-2560.814697265625 11665.93359375 142.26748657226562 0 0 0
-2212.532958984375 12959.1220703125 158.03807067871094 0 0 0
-1750.444580078125 14353.646484375 175.04446411132812 0 0 0
-1143.533203125 15628.287109375 190.5888671875 0 0 0
-397.27288818359375 16288.1884765625 198.63644409179688 0 0 0
411.2813415527344 16862.53515625 205.6406707763672 0 0 0
1276.11376953125 17440.22265625 212.68563842773438 0 0 0
2194.33447265625 17993.54296875 219.43344116210938 0 0 0
3163.722900390625 18530.376953125 225.98020935058594 0 0 0
4192.3291015625 19098.388671875 232.9071807861328 0 0 0
5244.36865234375 19547.193359375 238.38040161132812 0 0 0
6297.8427734375 19862.42578125 242.22471618652344 0 0 0
7304.37890625 19965.302734375 243.4792938232422 0 0 0
8262.337890625 19926.81640625 243.00994873046875 0 0 0
9236.9091796875 19932.279296875 243.07656860351562 0 0 0
10261.4931640625 20034.34375 244.32125854492188 0 0 0
11288.001953125 20122.091796875 245.391357421875 0 0 0
12351.28515625 20256.107421875 247.02569580078125 0 0 0
13440.2939453125 20409.3359375 248.8943328857422 0 0 0
14666.919921875 20735.990234375 252.8779296875 0 0 0
16332.1904296875 21600.638671875 263.42242431640625 0 0 0
19623.78125 24381.060546875 297.33001708984375 0 0 0
30993.677734375 36306.87890625 442.7668151855469 0 0 0
35971.015625 39859.7734375 486.09478759765625 228 228 228
37987.5390625 39935.6171875 487.01971435546875 227 227 227
40056.37109375 40056.37109375 488.4923400878906 231 231 231
42022.32421875 40067.796875 488.6316833496094 238 238 238
44106.28515625 40185.7265625 490.06982421875 244 244 244
46091.390625 40207.3828125 490.3339538574219 247 247 247
47998.35546875 40161.890625 489.7791442871094 250 250 250
49873.0078125 40093.984375 488.9510498046875 251 251 251
51853.22265625 40112.87109375 489.18133544921875 251 251 251
53678.515625 40014.89453125 487.98651123046875 250 250 250
55353.34375 39815.5625 485.5556640625 248 248 248
56865.91796875 39516.9921875 481.91455078125 243 243 243
58296.265625 39182.73828125 477.8382568359375 240 240 240
59771.046875 38898.6171875 474.3733825683594 230 230 230
61585.23828125 38846.07421875 473.73260498046875 232 232 232
59037.88671875 36127.66015625 440.58123779296875 0 0 0
38760.40625 23031.544921875 280.87249755859375 0 0 0
27085.32421875 15640.8203125 190.74171447753906 0 0 0
28605.53125 16066.1201171875 195.9282989501953 0 0 0
29000.892578125 15853.8212890625 193.3392791748047 0 0 0
29506.890625 15711.4609375 191.60317993164062 0 0 0
30617.529296875 15890.1103515625 193.78182983398438 0 0 0
31177.21875 15781.0615234375 192.45196533203125 0 0 0
31054.8671875 15340.3564453125 187.0775146484375 0 0 0
31277.22265625 15086.66015625 183.98365783691406 0 0 0
31812.943359375 14992.306640625 182.8330078125 0 0 0
32332.001953125 14894.517578125 181.6404571533203 0 0 0
32801.97265625 14778.9111328125 180.23062133789062 0 0 0
33442.6171875 14743.5185546875 179.79901123046875 0 0 0
34274.3515625 14792.0888671875 180.39132690429688 0 0 0
35322.1953125 14930.0 182.0731658935547 0 0 0
36455.48828125 15097.728515625 184.11863708496094 0 0 0
37622.40234375 15272.4599609375 186.24951171875 0 0 0
38630.9453125 15377.3662109375 187.5288543701172 0 0 0
39400.28125 15384.8720703125 187.62039184570312 0 0 0
40069.23828125 15353.6328125 187.2394256591797 0 0 0
40687.2421875 15304.375 186.6387176513672 0 0 0
41242.8671875 15233.8525390625 185.7786865234375 0 0 0
41662.296875 15116.4091796875 184.34645080566406 0 0 0
42630.23046875 15198.6044921875 185.3488311767578 0 0 0
43856.4765625 15368.5087890625 187.42083740234375 0 0 0
45540.7578125 15690.5126953125 191.34771728515625 0 0 0
48055.6484375 16283.318359375 198.57705688476562 0 0 0
51352.35546875 17117.453125 208.74942016601562 0 0 0
-24172.556640625 7541.83740234375 96.69022369384766 0 0 0
-23803.1171875 7547.32958984375 96.76063537597656 0 0 0
-23385.65234375 7537.5244140625 96.63492584228516 0 0 0
-23192.751953125 7600.986328125 97.44853973388672 0 0 0
-22917.419921875 7639.1396484375 97.93769073486328 0 0 0
-22550.099609375 7647.42529296875 98.04391479492188 0 0 0
-22083.1171875 7621.6064453125 97.71290588378906 0 0 0
-21883.44921875 7688.779296875 98.5740966796875 0 0 0
-21663.744140625 7751.248046875 99.3749771118164 0 0 0
-21267.474609375 7751.6962890625 99.38072204589844 0 0 0
-20774.046875 7716.07470703125 98.92403411865234 0 0 0
-20296.275390625 7684.99755859375 98.5256118774414 0 0 0
-19812.9609375 7650.5498046875 98.08396911621094 0 0 0
-19308.201171875 7606.26123046875 97.51616668701172 0 0 0
-18811.37109375 7563.33447265625 96.96582794189453 0 0 0
-18271.92578125 7501.1064453125 96.16802978515625 0 0 0
-17777.103515625 7454.9140625 95.57582092285156 0 0 0
-17413.4375 7462.9013671875 95.67822265625 0 0 0
-17133.482421875 7507.9306640625 96.25552368164062 0 0 0
-16771.3203125 7518.17822265625 96.38690185546875 0 0 0
-16484.66015625 7563.5498046875 96.96858978271484 0 0 0
-16355.9501953125 7685.326171875 98.52982330322266 0 0 0
-16292.1015625 7844.34521484375 100.56852722167969 0 0 0
-16290.103515625 8041.94970703125 103.10192108154297 0 0 0
-16353.5341796875 8282.958984375 106.19178009033203 0 0 0
-16457.759765625 8558.03515625 109.71839904785156 0 0 0
-16521.830078125 8826.73046875 113.16321563720703 0 0 0
-16539.173828125 9084.8984375 116.47305297851562 0 0 0
-16543.263671875 9350.5400390625 119.87872314453125 0 0 0
-16570.466796875 9645.49609375 123.66020202636719 0 0 0
-16557.91796875 9934.7509765625 127.36859893798828 0 0 0
-16435.716796875 10174.4912109375 130.44219970703125 0 0 0
-16242.1455078125 10384.322265625 133.13233947753906 0 0 0
-15958.2490234375 10548.6728515625 135.23939514160156 0 0 0
-15786.501953125 10801.291015625 138.47808837890625 0 0 0
-15130.6962890625 10729.0390625 137.55178833007812 0 0 0
-14390.34765625 10589.1240234375 135.75799560546875 0 0 0
-13636.62109375 10428.0048828125 133.69236755371094 0 0 0
-13443.328125 10699.7919921875 137.17681884765625 0 0 0
-12017.31640625 9971.81640625 127.84379577636719 0 0 0
-20161.701171875 17473.474609375 224.01890563964844 0 0 0
-33681.32421875 30548.177734375 391.643310546875 0 0 0
-33708.98046875 32064.640625 411.08514404296875 237 237 237
-32240.388671875 32240.388671875 413.33831787109375 246 246 246
-30559.533203125 32211.400390625 412.9666748046875 251 251 251
-28781.845703125 32071.19921875 411.1692199707031 252 252 252
-27139.607421875 32074.08203125 411.2061767578125 254 254 254
-25502.236328125 32083.458984375 411.3263854980469 255 255 255
-23839.392578125 32059.873046875 411.0240173339844 255 255 255
-22133.423828125 31970.501953125 409.87823486328125 255 255 255
-20423.35546875 31860.43359375 408.46710205078125 255 255 255
-18766.447265625 31821.3671875 407.96624755859375 255 255 255
-17108.32421875 31772.603515625 407.341064453125 255 255 255
-15412.3583984375 31635.89453125 405.58837890625 255 255 255
-13680.7607421875 31385.2734375 402.37530517578125 254 254 254
-12031.705078125 31282.431640625 401.05682373046875 254 254 254
-10417.8291015625 31253.486328125 400.68572998046875 250 250 250
-8949.1611328125 31728.84375 406.7800598144531 244 244 244
-6575.90576171875 28495.591796875 365.3280944824219 0 0 0
-3247.122314453125 18091.109375 231.9373016357422 0 0 0
-2142.010009765625 16707.677734375 214.2010040283203 0 0 0
-1350.0469970703125 17550.611328125 225.00782775878906 0 0 0
-468.4540100097656 18269.70703125 234.2270050048828 0 0 0
488.9337158203125 19068.4140625 244.46685791015625 0 0 0
1508.866943359375 19615.271484375 251.4778289794922 0 0 0
2581.1220703125 20132.751953125 258.1122131347656 0 0 0
3724.5166015625 20750.876953125 266.0368957519531 0 0 0
4921.2568359375 21325.447265625 273.4031677246094 0 0 0
6107.34716796875 21653.322265625 277.606689453125 0 0 0
7219.6875 21659.0625 277.6802978515625 0 0 0
8292.6240234375 21560.822265625 276.4208068847656 0 0 0
9289.7431640625 21311.765625 273.2277526855469 0 0 0
10370.3427734375 21286.4921875 272.90374755859375 0 0 0
11580.9599609375 21507.498046875 275.7371520996094 0 0 0
12866.54296875 21817.181640625 279.70745849609375 0 0 0
14263.7998046875 22251.52734375 285.2760009765625 0 0 0
15690.4951171875 22664.048828125 290.5647277832031 0 0 0
17292.044921875 23254.818359375 298.1387023925781 0 0 0
20096.373046875 25282.533203125 324.1350402832031 0 0 0
29863.50390625 35293.23046875 452.4773254394531 0 0 0
34476.28515625 38416.43359375 492.51837158203125 228 228 228
36514.16015625 38487.8984375 493.4346008300781 226 226 226
38668.82421875 38668.82421875 495.7541809082031 231 231 231
40703.01953125 38717.5078125 496.3782958984375 235 235 235
42843.0859375 38857.68359375 498.1754150390625 243 243 243
44979.22265625 38981.9921875 499.7691345214844 248 248 248
47024.91796875 39020.67578125 500.26507568359375 253 253 253
48984.3359375 38987.53515625 499.8401794433594 254 254 254
50922.98828125 38941.10546875 499.2449645996094 255 255 255
52858.45703125 38895.84375 498.6646728515625 255 255 255
54695.8203125 38784.30859375 497.2347412109375 255 255 255
56407.375 38594.51953125 494.8015441894531 254 254 254
57943.46484375 38301.61328125 491.04632568359375 253 253 253
59292.7890625 37908.50390625 486.0064697265625 245 245 245
60456.23046875 37425.28515625 479.81134033203125 242 242 242
61980.23046875 37188.13671875 476.77099609375 233 233 233
63470.78125 36945.6796875 473.66253662109375 224 224 224
63901.47265625 36118.22265625 463.05413818359375 0 0 0
45175.4375 24814.67578125 318.1368713378906 0 0 0
30854.015625 16483.65234375 211.32887268066406 0 0 0
32774.3046875 17042.638671875 218.49537658691406 0 0 0
33350.796875 16891.9609375 216.56361389160156 0 0 0
35658.44140625 17603.53515625 225.68634033203125 0 0 0
36158.390625 17409.595703125 223.199951171875 0 0 0
35679.72265625 16765.169921875 214.93807983398438 0 0 0
35953.578125 16496.34765625 211.49163818359375 0 0 0
36742.25 16470.6640625 211.162353515625 0 0 0
37751.70703125 16542.8828125 212.08824157714844 0 0 0
39031.66015625 16727.853515625 214.4596710205078 0 0 0
40535.3984375 16998.71484375 217.9322509765625 0 0 0
41749.04296875 17139.080078125 219.73179626464844 0 0 0
42737.4921875 17183.115234375 220.29635620117188 0 0 0
43588.69140625 17171.302734375 220.1448974609375 0 0 0
44293.84375 17103.564453125 219.27645874023438 0 0 0
44465.87890625 16836.59375 215.85377502441406 0 0 0
44167.4921875 16405.068359375 210.32139587402344 0 0 0
44550.421875 16238.0048828125 208.17955017089844 0 0 0
44878.9609375 16057.609375 205.86679077148438 0 0 0
45179.00390625 15873.703125 203.50901794433594 0 0 0
45423.0 15676.96484375 200.98672485351562 0 0 0
46326.47265625 15710.716796875 201.41944885253906 0 0 0
47509.9765625 15836.6591796875 203.03408813476562 0 0 0
49073.52734375 16082.9208984375 206.19129943847656 0 0 0
51969.30859375 16750.4375 214.74920654296875 0 0 0
55517.90625 17603.23828125 225.6825408935547 0 0 0
-24689.4453125 7308.07568359375 98.75778198242188 0 0 0
-24337.927734375 7321.16552734375 98.9346694946289 0 0 0
-23934.47265625 7318.8056640625 98.90277862548828 0 0 0
-23768.75390625 7390.28466796875 99.86871337890625 0 0 0
-23517.34375 7437.1083984375 100.50146484375 0 0 0
-23177.34375 7457.05810546875 100.77105712890625 0 0 0
-22726.87890625 7441.54443359375 100.56140899658203 0 0 0
-22512.150390625 7504.05029296875 101.40608215332031 0 0 0
-22275.5234375 7561.416015625 102.1812973022461 0 0 0
-21865.7890625 7561.06689453125 102.17658233642578 0 0 0
-21343.40234375 7521.00830078125 101.63524627685547 0 0 0
-20856.029296875 7491.9716796875 101.24285888671875 0 0 0
-20374.189453125 7463.81201171875 100.8623275756836 0 0 0
-19870.591796875 7426.3828125 100.35652160644531 0 0 0
-19381.744140625 7393.03662109375 99.90589904785156 0 0 0
-18855.958984375 7343.89990234375 99.24188995361328 0 0 0
-18383.943359375 7314.04150390625 98.8384017944336 0 0 0
-18059.658203125 7342.93798828125 99.22888946533203 0 0 0
-17868.4375 7428.45166015625 100.38448333740234 0 0 0
-17353.58203125 7380.25927734375 99.73323059082031 0 0 0
-17187.443359375 7481.5927734375 101.10260772705078 0 0 0
-17031.166015625 7592.2060546875 102.59738159179688 0 0 0
-17082.41796875 7803.07958984375 105.447021484375 0 0 0
-17195.453125 8053.56640625 108.83197784423828 0 0 0
-17321.9453125 8323.5322265625 112.48016357421875 0 0 0
-17483.654296875 8625.26953125 116.55769348144531 0 0 0
-17625.806640625 8933.6279296875 120.72470092773438 0 0 0
-17718.044921875 9233.34765625 124.77496337890625 0 0 0
-17742.16796875 9513.916015625 128.56643676757812 0 0 0
-17742.736328125 9798.2275390625 132.40847778320312 0 0 0
-17633.076171875 10037.2900390625 135.63905334472656 0 0 0
-17527.025390625 10293.650390625 139.10337829589844 0 0 0
-17478.46484375 10601.69140625 143.26609802246094 0 0 0
-17422.900390625 10926.2255859375 147.65170288085938 0 0 0
-16717.015625 10851.396484375 146.64048767089844 0 0 0
-16004.6103515625 10766.73828125 145.4964599609375 0 0 0
-15344.791015625 10712.4013671875 144.76217651367188 0 0 0
-15092.1044921875 10949.173828125 147.96180725097656 0 0 0
-20358.23046875 15372.541015625 207.73704528808594 0 0 0
-36029.51171875 28363.66015625 383.2926940917969 0 0 0
-37042.96484375 30457.548828125 411.5885009765625 230 230 230
-35645.5 30671.708984375 414.4825439453125 246 246 246
-34125.45703125 30796.142578125 416.1640930175781 249 249 249
-32588.19921875 30917.009765625 417.79742431640625 250 250 250
-30980.044921875 30980.044921875 418.6492614746094 251 251 251
-29325.306640625 31001.0390625 418.9329528808594 252 252 252
-27623.466796875 30971.765625 418.5373840332031 255 255 255
-25921.333984375 30938.365234375 418.0860290527344 255 255 255
-24190.365234375 30863.568359375 417.07525634765625 255 255 255
-22452.119140625 30767.720703125 415.7799987792969 255 255 255
-20759.98046875 30724.771484375 415.1996154785156 255 255 255
-19052.912109375 30650.3359375 414.1937255859375 255 255 255
-17375.123046875 30613.310546875 413.6933898925781 255 255 255
-15692.3466796875 30558.779296875 412.95648193359375 255 255 255
-13972.283203125 30410.26171875 410.9494934082031 254 254 254
-12227.150390625 30160.3046875 407.5716857910156 253 253 253
-10479.5859375 29826.513671875 403.0610046386719 251 251 251
-8857.8671875 29794.642578125 402.63031005859375 247 247 247
-7263.0263671875 29859.109375 403.50146484375 232 232 232
-5378.21875 28427.7265625 384.1584777832031 0 0 0
-3029.71533203125 22419.892578125 302.9715270996094 0 0 0
-1656.049560546875 20424.611328125 276.0082702636719 0 0 0
-563.5753784179688 20852.2890625 281.7876892089844 0 0 0
588.2254638671875 21764.341796875 294.11273193359375 0 0 0
1813.253662109375 22363.462890625 302.2089538574219 0 0 0
3083.380126953125 22817.013671875 308.3380126953125 0 0 0
4386.4599609375 23185.57421875 313.3185729980469 0 0 0
5712.63232421875 23485.267578125 317.36846923828125 0 0 0
7021.88818359375 23619.078125 319.1767272949219 0 0 0
8250.525390625 23482.263671875 317.327880859375 0 0 0
9307.2734375 22957.939453125 310.242431640625 0 0 0
10330.6259765625 22484.3046875 303.8419494628906 0 0 0
11566.9716796875 22525.154296875 304.39398193359375 0 0 0
12939.8349609375 22798.7578125 308.09130859375 0 0 0
14427.318359375 23209.1640625 313.6373596191406 0 0 0
16012.267578125 23698.15625 320.245361328125 0 0 0
17616.064453125 24140.533203125 326.2234191894531 0 0 0
19915.08984375 25408.908203125 343.3636169433594 0 0 0
27845.322265625 33234.73828125 449.11810302734375 0 0 0
32527.1484375 36469.83203125 492.8355712890625 0 0 0
34777.20703125 36764.4765625 496.8172302246094 221 221 221
37052.828125 37052.828125 500.7138671875 228 228 228
39101.953125 37096.72265625 501.30706787109375 233 233 233
41219.9296875 37198.47265625 502.68206787109375 242 242 242
43348.73046875 37300.0703125 504.05499267578125 249 249 249
45487.54296875 37400.8671875 505.4171447753906 253 253 253
47553.44921875 37435.6953125 505.88775634765625 255 255 255
49566.1875 37427.53125 505.7774353027344 255 255 255
51537.1875 37389.72265625 505.26654052734375 255 255 255
53470.61328125 37328.54296875 504.43975830078125 255 255 255
55335.125 37225.44921875 503.0466003417969 255 255 255
57151.9296875 37098.62109375 501.3327331542969 255 255 255
58802.28515625 36876.01171875 498.324462890625 254 254 254
60316.5390625 36585.44140625 494.3978576660156 254 254 254
61701.22265625 36237.2265625 489.6922302246094 248 248 248
62834.859375 35767.53515625 483.3450622558594 245 245 245
64195.52734375 35451.26171875 479.07110595703125 236 236 236
65531.16796875 35139.90234375 474.863525390625 225 225 225
66234.640625 34516.64453125 466.4411315917969 255 255 255
52939.14453125 26832.169921875 362.5968933105469 0 0 0
36844.98046875 18176.857421875 245.63320922851562 0 0 0
36884.42578125 17723.685546875 239.50926208496094 0 0 0
39652.73046875 18571.53125 250.96664428710938 0 0 0
40853.37109375 18661.416015625 252.18130493164062 0 0 0
41567.81640625 18530.23046875 250.4085235595703 0 0 0
41903.07421875 18240.162109375 246.48867797851562 0 0 0
42140.7734375 17921.9375 242.1883544921875 0 0 0
43149.39453125 17938.51171875 242.41232299804688 0 0 0
45081.73046875 18329.93359375 247.70181274414062 0 0 0
47289.34375 18814.0390625 254.2437744140625 0 0 0
48912.97265625 19050.31640625 257.43670654296875 0 0 0
50219.21484375 19155.783203125 258.8619384765625 0 0 0
51236.44140625 19148.97265625 258.7698974609375 0 0 0
52031.890625 19061.1875 257.5836181640625 0 0 0
52327.33984375 18797.201171875 254.01622009277344 0 0 0
51662.9609375 18205.04296875 246.01409912109375 0 0 0
50204.84375 17360.552734375 234.60206604003906 0 0 0
49902.7265625 16939.45703125 228.91159057617188 0 0 0
49870.84765625 16623.6171875 224.64346313476562 0 0 0
49822.9140625 16313.697265625 220.4553680419922 0 0 0
50575.4921875 16272.115234375 219.89344787597656 0 0 0
51716.19921875 16354.6953125 221.0093994140625 0 0 0
53554.546875 16651.4140625 225.01910400390625 0 0 0
56500.15234375 17276.90625 233.47171020507812 0 0 0
60138.7265625 18090.51171875 244.46636962890625 0 0 0
-25255.419921875 7071.517578125 101.02168273925781 0 0 0
-24923.08984375 7091.93603515625 101.31336975097656 0 0 0
-24521.919921875 7093.1171875 101.33024597167969 0 0 0
-24379.82421875 7170.5361328125 102.43623352050781 0 0 0
-24154.390625 7225.67236328125 103.22389221191406 0 0 0
-23829.30078125 7252.39599609375 103.60565948486328 0 0 0
-23398.376953125 7247.28466796875 103.53263854980469 0 0 0
-23187.48046875 7311.36767578125 104.44811248779297 0 0 0
-22924.802734375 7361.17529296875 105.1596450805664 0 0 0
-22503.75 7361.0400390625 105.15771484375 0 0 0
-21960.634765625 7320.2119140625 104.57445526123047 0 0 0
-21480.35546875 7299.150390625 104.27357482910156 0 0 0
-21004.564453125 7278.8095703125 103.98299407958984 0 0 0
-20502.00390625 7248.18359375 103.54547882080078 0 0 0
-20018.20703125 7223.06396484375 103.18663024902344 0 0 0
-19509.751953125 7187.8037109375 102.68290710449219 0 0 0
-19064.712890625 7174.89208984375 102.49845886230469 0 0 0
-18778.658203125 7222.560546875 103.17943572998047 0 0 0
-18442.443359375 7252.64599609375 103.6092300415039 0 0 0
-18097.431640625 7280.57568359375 104.00822448730469 0 0 0
-17847.44140625 7348.94677734375 104.98495483398438 0 0 0
-17850.54296875 7527.3369140625 107.53338623046875 0 0 0
-17983.76953125 7770.76416015625 111.01091766357422 0 0 0
-18170.962890625 8050.42626953125 115.00608825683594 0 0 0
-18365.833984375 8348.1064453125 119.2586669921875 0 0 0
-18575.638671875 8668.630859375 123.83758544921875 0 0 0
-18801.857421875 9014.5888671875 128.77984619140625 0 0 0
-18926.958984375 9330.1904296875 133.28843688964844 0 0 0
-18918.765625 9596.474609375 137.09249877929688 0 0 0
-18904.77734375 9875.6298828125 141.08042907714844 0 0 0
-18858.392578125 10154.51953125 145.06455993652344 0 0 0
-18991.06640625 10550.5927734375 150.72274780273438 0 0 0
-18857.052734375 10819.62109375 154.56600952148438 0 0 0
-18475.029296875 10959.7626953125 156.5680389404297 0 0 0
-17766.38671875 10909.185546875 155.8455047607422 0 0 0
-17317.869140625 11020.462890625 157.4351806640625 0 0 0
-17654.51953125 11658.6455078125 166.5520782470703 0 0 0
-31531.3515625 21639.162109375 309.1308898925781 0 0 0
-40047.4140625 28605.296875 408.6470947265625 255 255 255
-39089.08984375 29108.896484375 415.84136962890625 233 233 233
-37611.20703125 29253.162109375 417.9023132324219 245 245 245
-36182.80859375 29451.123046875 420.7303161621094 247 247 247
-34592.14453125 29529.87890625 421.85540771484375 247 247 247
-33079.17578125 29686.439453125 424.09197998046875 248 248 248
-31458.166015625 29757.724609375 425.1103515625 249 249 249
-29721.748046875 29721.748046875 424.5964050292969 252 252 252
-27949.01953125 29642.900390625 423.4700012207031 254 254 254
-26180.41015625 29558.52734375 422.2646789550781 255 255 255
-24406.12109375 29455.6640625 420.7951965332031 255 255 255
-22655.552734375 29368.30859375 419.5472717285156 255 255 255
-20937.298828125 29312.21875 418.7459716796875 255 255 255
-19221.28125 29249.775390625 417.85394287109375 255 255 255
-17518.376953125 29197.294921875 417.1042175292969 255 255 255
-15841.4287109375 29181.578125 416.87969970703125 255 255 255
-14130.759765625 29092.7421875 415.610595703125 253 253 253
-12381.3408203125 28889.794921875 412.71136474609375 251 251 251
-10635.734375 28634.669921875 409.06671142578125 249 249 249
-8940.064453125 28445.658203125 406.3665466308594 248 248 248
-7317.08984375 28455.349609375 406.5050048828125 244 244 244
-5690.6572265625 28453.287109375 406.47552490234375 232 232 232
-3749.376220703125 26245.6328125 374.9376220703125 0 0 0
-1975.1956787109375 23043.94921875 329.19927978515625 0 0 0
-644.394775390625 22553.81640625 322.1973876953125 0 0 0
652.8408203125 22849.4296875 326.42041015625 0 0 0
1990.7003173828125 23224.837890625 331.78338623046875 0 0 0
3381.9658203125 23673.76171875 338.19659423828125 0 0 0
4804.1083984375 24020.54296875 343.1506042480469 0 0 0
6243.724609375 24281.15234375 346.87359619140625 0 0 0
7685.65625 24454.361328125 349.3480224609375 0 0 0
9116.02734375 24543.150390625 350.6164245605469 0 0 0
10367.3916015625 24190.580078125 345.5797119140625 0 0 0
11511.4345703125 23700.01171875 338.57159423828125 0 0 0
12789.6572265625 23559.89453125 336.5699157714844 0 0 0
14346.412109375 23910.6875 341.58123779296875 0 0 0
16066.8896484375 24449.615234375 349.28021240234375 0 0 0
17462.47265625 24447.4609375 349.24945068359375 0 0 0
19236.939453125 24936.7734375 356.2396240234375 0 0 0
23965.255859375 28923.583984375 413.1940612792969 0 0 0
30580.06640625 34525.87890625 493.22686767578125 0 0 0
32851.87890625 34842.90234375 497.7557373046875 217 217 219
35158.62890625 35158.62890625 502.2661437988281 227 227 227
37338.984375 35320.66015625 504.58087158203125 231 231 231
39464.28125 35416.6640625 505.95233154296875 241 241 241
41606.30078125 35517.57421875 507.3938903808594 248 248 248
43694.98046875 35565.6796875 508.0811462402344 255 255 255
45791.0234375 35615.2421875 508.7891540527344 255 255 255
47847.35546875 35631.0078125 509.014404296875 255 255 255
49884.62109375 35631.875 509.0267639160156 255 255 255
51879.0 35603.234375 508.6176452636719 255 255 255
53846.0078125 35558.68359375 507.981201171875 255 255 255
55760.078125 35483.68359375 506.9097900390625 255 255 255
57650.1015625 35399.18359375 505.70263671875 255 255 255
59425.6171875 35252.484375 503.60693359375 254 254 254
61088.33984375 35050.6875 500.7240905761719 255 255 255
62541.00390625 34745.00390625 496.357177734375 254 254 254
63795.578125 34351.46484375 490.7352294921875 250 250 250
64916.51953125 33911.61328125 484.4516296386719 245 245 245
66132.53125 33545.48828125 479.22125244140625 237 237 237
67759.078125 33402.36328125 477.1766052246094 227 227 227
68683.25 32930.32421875 470.4331970214844 240 240 240
56179.9609375 26217.31640625 374.5330810546875 0 0 0
42189.06640625 19176.849609375 273.9549865722656 0 0 0
43391.55078125 19224.10546875 274.63006591796875 0 0 0
45390.875 19613.33984375 280.1905822753906 0 0 0
46495.0859375 19606.361328125 280.09088134765625 0 0 0
47165.515625 19421.095703125 277.4442138671875 0 0 0
47453.66796875 19090.556640625 272.72222900390625 0 0 0
48310.03515625 18998.328125 271.4046936035156 0 0 0
49804.26171875 19155.484375 273.6497802734375 0 0 0
51712.08203125 19461.53515625 278.0219421386719 0 0 0
53836.8671875 19834.634765625 283.3519287109375 0 0 0
55652.58984375 20080.83203125 286.8690185546875 0 0 0
56941.48828125 20130.830078125 287.5832824707031 0 0 0
57808.48828125 20032.64453125 286.1806335449219 0 0 0
58348.796875 19827.26171875 283.24658203125 0 0 0
58378.78125 19459.59375 277.99420166015625 0 0 0
58092.875 19002.341796875 271.4620361328125 0 0 0
57085.01953125 18330.05078125 261.8578796386719 0 0 0
55303.91015625 17438.169921875 249.11671447753906 0 0 0
54751.0546875 16958.291015625 242.2613067626953 0 0 0
55305.80078125 16832.201171875 240.4600067138672 0 0 0
56445.4296875 16885.384765625 241.21978759765625 0 0 0
58986.22265625 17348.888671875 247.84127807617188 0 0 0
61582.9921875 17813.26171875 254.4751739501953 0 0 0
65114.58984375 18528.541015625 264.6934509277344 0 0 0
-25868.625 6829.3173828125 103.47450256347656 0 0 0
-25557.517578125 6856.89501953125 103.89234924316406 0 0 0
-25155.2734375 6860.529296875 103.9474105834961 0 0 0
-25036.19140625 6942.8095703125 105.19408416748047 0 0 0
-24842.8125 7006.94677734375 106.16586303710938 0 0 0
-24554.1015625 7045.9599609375 106.75696563720703 0 0 0
-24131.16015625 7047.1533203125 106.7750473022461 0 0 0
-23930.681640625 7114.52685546875 107.79586029052734 0 0 0
-23638.7421875 7156.68359375 108.43460083007812 0 0 0
-23210.236328125 7158.296875 108.45904541015625 0 0 0
-22666.201171875 7123.66357421875 107.93429565429688 0 0 0
-22182.146484375 7106.9013671875 107.6803207397461 0 0 0
-21714.8125 7094.9384765625 107.49906921386719 0 0 0
-21219.212890625 7073.07080078125 107.16773986816406 0 0 0
-20744.9921875 7057.57421875 106.93294525146484 0 0 0
-20257.939453125 7036.96875 106.62073516845703 0 0 0
-19844.646484375 7041.6484375 106.69164276123047 0 0 0
-19621.59765625 7115.5244140625 107.81097412109375 0 0 0
-19155.3984375 7102.5634765625 107.6146011352539 0 0 0
-18844.54296875 7147.93017578125 108.30197143554688 0 0 0
-18647.865234375 7239.759765625 109.69332885742188 0 0 0
-18741.5859375 7451.47412109375 112.901123046875 0 0 0
-18928.2109375 7711.4931640625 116.84080505371094 0 0 0
-19175.060546875 8009.83544921875 121.36114501953125 0 0 0
-19431.408203125 8327.74609375 126.177978515625 0 0 0
-19681.560546875 8659.88671875 131.2104034423828 0 0 0
-19877.3203125 8985.6376953125 136.14602661132812 0 0 0
-19968.875 9281.30859375 140.62588500976562 0 0 0
-19919.6796875 9526.8037109375 144.3455047607422 0 0 0
-20023.80078125 9862.46875 149.4313507080078 0 0 0
-19972.939453125 10140.1083984375 153.63800048828125 0 0 0
-19718.8671875 10328.9306640625 156.4989471435547 0 0 0
-19773.78515625 10697.29296875 162.0802001953125 0 0 0
-19771.044921875 11058.380859375 167.5512237548828 0 0 0
-20120.763671875 11648.86328125 176.4979248046875 0 0 0
-22042.16796875 13225.30078125 200.3833465576172 0 0 0
-37573.87109375 23395.052734375 354.4704895019531 0 0 0
-42236.484375 27329.490234375 414.08319091796875 240 240 240
-40858.5703125 27516.99609375 416.9241943359375 239 239 241
-39566.96875 27781.0625 420.9252014160156 244 244 246
-38169.046875 27990.634765625 424.10052490234375 244 244 244
-36638.66796875 28118.046875 426.031005859375 245 245 245
-35082.69140625 28237.287109375 427.8376770019531 245 245 245
-33492.59375 28339.88671875 429.3922119140625 246 246 246
-31788.486328125 28351.892578125 429.5741271972656 247 247 247
-29997.462890625 28283.322265625 428.5351867675781 250 250 250
-28176.447265625 28176.447265625 426.9158630371094 251 251 251
-26372.083984375 28073.509765625 425.356201171875 255 255 255
-24601.76953125 27995.1171875 424.16845703125 255 255 255
-22800.859375 27867.716796875 422.2381286621094 255 255 255
-21068.69140625 27810.671875 421.3738098144531 253 253 253
-19348.986328125 27761.58984375 420.6301574707031 255 255 255
-17583.23828125 27630.802734375 418.6485290527344 255 255 255
-15870.7900390625 27565.056640625 417.6523742675781 254 254 254
-14181.533203125 27528.857421875 417.1039123535156 252 252 252
-12472.3974609375 27439.2734375 415.74658203125 249 249 249
-10754.734375 27300.48046875 413.6436462402344 247 247 247
-9064.126953125 27192.380859375 412.0057678222656 245 245 245
-7399.958984375 27133.181640625 411.10882568359375 244 244 244
-5754.7509765625 27129.541015625 411.05364990234375 238 238 238
-4065.1279296875 26829.84375 406.5127868652344 255 255 255
-2287.8251953125 25166.078125 381.30419921875 0 0 0
-714.6722412109375 23584.18359375 357.33612060546875 0 0 0
703.3663330078125 23211.08984375 351.68316650390625 0 0 0
2131.170654296875 23442.876953125 355.1950988769531 0 0 0
3615.08837890625 23859.583984375 361.50885009765625 0 0 0
5113.4345703125 24106.19140625 365.2453308105469 0 0 0
6614.162109375 24251.927734375 367.4534606933594 0 0 0
8123.16357421875 24369.490234375 369.2347106933594 0 0 0
9618.4228515625 24415.99609375 369.9393310546875 0 0 0
11087.7392578125 24393.02734375 369.59130859375 0 0 0
12549.3388671875 24360.482421875 369.09820556640625 0 0 0
14009.1025390625 24331.59765625 368.66058349609375 0 0 0
15655.958984375 24602.220703125 372.76092529296875 0 0 0
17409.830078125 24979.3203125 378.47454833984375 0 0 0
18772.0390625 24779.091796875 375.4407958984375 0 0 0
20799.37109375 25421.453125 385.17352294921875 0 0 0
26342.3359375 29975.76171875 454.17822265625 0 0 0
30754.134765625 32738.271484375 496.034423828125 255 255 255
33114.7578125 33114.7578125 501.7387390136719 222 222 224
35362.1640625 33341.46875 505.17376708984375 229 229 229
37512.40625 33457.01171875 506.9244079589844 237 237 237
39719.65625 33608.94140625 509.22637939453125 248 248 248
41868.0 33698.6328125 510.5853576660156 255 255 255
43942.984375 33723.6875 510.9649353027344 255 255 255
46006.2890625 33737.9453125 511.18096923828125 255 255 255
48065.0625 33747.80859375 511.3304443359375 255 255 255
50114.42578125 33750.53125 511.3717041015625 255 255 255
52134.75 33734.25 511.125 255 255 255
54137.34765625 33708.16015625 510.7297058105469 255 255 255
56102.140625 33661.28515625 510.01947021484375 255 255 255
57968.94140625 33560.96484375 508.4994812011719 255 255 255
59781.96875 33437.37109375 506.6268615722656 255 255 255
61516.8671875 33279.6171875 504.2366027832031 255 255 255
63066.484375 33034.82421875 500.52764892578125 255 255 255
64473.25 32732.57421875 495.9480895996094 251 251 251
65763.7109375 32391.08203125 490.7739562988281 251 251 251
66893.5859375 31992.583984375 484.7361145019531 245 245 245
68055.140625 31631.263671875 479.2615661621094 233 233 233
69550.640625 31440.69921875 476.3742370605469 226 226 226
69915.4453125 30762.794921875 466.10296630859375 255 255 255
57252.41015625 24536.74609375 371.7688903808594 0 0 0
47679.37890625 19916.703125 301.7682189941406 0 0 0
48895.09375 19920.22265625 301.8215637207031 0 0 0
49830.06640625 19811.953125 300.1811218261719 0 0 0
50867.28125 19748.474609375 299.21929931640625 0 0 0
51421.23046875 19504.60546875 295.5243225097656 0 0 0
52403.9375 19430.673828125 294.4041442871094 0 0 0
53804.609375 19511.5625 295.6297302246094 0 0 0
56050.359375 19888.8359375 301.34600830078125 0 0 0
58530.7578125 20331.736328125 308.0566101074219 0 0 0
60631.29296875 20627.140625 312.5324401855469 0 0 0
62217.98828125 20739.330078125 314.2322692871094 0 0 0
63227.49609375 20658.490234375 313.0074157714844 0 0 0
63473.87109375 20336.2890625 308.1255798339844 0 0 0
63651.87109375 20004.875 303.1041564941406 0 0 0
63635.48046875 19625.896484375 297.362060546875 0 0 0
63118.796875 19109.361328125 289.5357666015625 0 0 0
62344.3046875 18534.79296875 280.8302001953125 0 0 0
60889.578125 17781.912109375 269.42291259765625 0 0 0
60842.7578125 17459.2265625 264.5337219238281 0 0 0
62505.515625 17629.759765625 267.1175842285156 0 0 0
64967.71875 18016.2578125 272.9736022949219 0 0 0
66684.875 18186.78515625 275.5573425292969 0 0 0
70594.8984375 18940.09375 286.97113037109375 0 0 0
-26505.462890625 6573.3544921875 106.0218505859375 0 0 0
-26211.4296875 6606.1328125 106.55052947998047 0 0 0
-25806.55078125 6611.595703125 106.63864135742188 0 0 0
-25707.55859375 6696.92724609375 108.01495361328125 0 0 0
-25558.19921875 6771.83056640625 109.22307586669922 0 0 0
-25299.673828125 6819.912109375 109.99858093261719 0 0 0
-24892.490234375 6828.9130859375 110.14376068115234 0 0 0
-24708.732421875 6900.63720703125 111.30059814453125 0 0 0
-24386.09375 6935.49462890625 111.8628158569336 0 0 0
-23963.93359375 6942.82177734375 111.98099517822266 0 0 0
-23414.4609375 6912.8408203125 111.49742889404297 0 0 0
-22930.751953125 6901.48828125 111.3143310546875 0 0 0
-22478.6953125 6899.4013671875 111.28067016601562 0 0 0
-21997.47265625 6888.09765625 111.09835052490234 0 0 0
-21542.9453125 6884.85888671875 111.04611206054688 0 0 0
-21097.9375 6884.59033203125 111.04177856445312 0 0 0
-20726.50390625 6908.83447265625 111.43281555175781 0 0 0
-20507.40625 6986.03955078125 112.67805480957031 0 0 0
-19963.107421875 6953.44189453125 112.15229034423828 0 0 0
-19662.04296875 7006.01513671875 113.000244140625 0 0 0
-19541.748046875 7126.99072265625 114.95146179199219 0 0 0
-19700.421875 7357.9892578125 118.67724609375 0 0 0
-19958.021484375 7638.2548828125 123.19766235351562 0 0 0
-20269.87109375 7954.00048828125 128.2903289794922 0 0 0
-20581.421875 8286.02734375 133.64559936523438 0 0 0
-20861.0546875 8622.5693359375 139.07369995117188 0 0 0
-21060.595703125 8943.541015625 144.2506561279297 0 0 0
-21124.56640625 9223.40234375 148.76455688476562 0 0 0
-21294.10546875 9566.9169921875 154.30511474609375 0 0 0
-20700.9453125 9578.048828125 154.4846649169922 0 0 0
-20433.736328125 9745.3203125 157.18258666992188 0 0 0
-20501.15234375 10087.869140625 162.7075653076172 0 0 0
-21104.904296875 10725.4423828125 172.9910125732422 0 0 0
-22616.673828125 11883.337890625 191.66673278808594 0 0 0
-26960.90625 14662.94921875 236.49917602539062 0 0 0
-42257.625 23817.93359375 384.16021728515625 0 0 0
-44118.13671875 25804.947265625 416.2088317871094 230 230 230
-42980.6953125 26125.521484375 421.3793640136719 234 234 236
-41623.578125 26333.28515625 424.73040771484375 242 242 244
-40081.78125 26436.919921875 426.4019470214844 242 242 244
-38610.19140625 26598.130859375 429.0021057128906 242 242 242
-37129.13671875 26767.515625 431.734130859375 242 242 242
-35511.984375 26850.5234375 433.0729675292969 242 242 242
-33852.90625 26908.71875 434.0115966796875 243 243 243
-32101.615234375 26895.947265625 433.80560302734375 245 245 245
-30300.19921875 26837.318359375 432.8599853515625 249 249 249
-28505.57421875 26777.96484375 431.90264892578125 253 253 253
-26600.111328125 26600.111328125 429.0340576171875 254 254 254
-24882.7578125 26598.810546875 429.0130615234375 246 246 246
-23155.619140625 26586.08203125 428.8077697753906 252 252 252
-21323.291015625 26440.880859375 426.4658203125 255 255 255
-19531.939453125 26325.65625 424.60736083984375 255 255 255
-17824.095703125 26311.76171875 424.38323974609375 255 255 255
-16044.1279296875 26177.26171875 422.2138977050781 252 252 252
-14274.53515625 26030.03515625 419.8392639160156 250 250 250
-12559.1572265625 25955.591796875 418.6385803222656 247 247 247
-10862.7080078125 25903.380859375 417.7964782714844 245 245 245
-9156.947265625 25805.943359375 416.2248840332031 243 243 243
-7478.61279296875 25759.666015625 415.4784851074219 243 243 243
-5811.2001953125 25735.314453125 415.0857238769531 240 240 240
-4151.0830078125 25736.71484375 415.1083068847656 223 223 223
-2472.460693359375 25548.759765625 412.0767822265625 0 0 0
-779.6276245117188 24168.45703125 389.8138122558594 0 0 0
756.5217895507812 23452.17578125 378.2608947753906 0 0 0
2273.59814453125 23493.849609375 378.93304443359375 0 0 0
3842.2958984375 23822.234375 384.2295837402344 0 0 0
5386.80322265625 23855.84375 384.77166748046875 0 0 0
6943.884765625 23917.82421875 385.7713623046875 0 0 0
8507.24609375 23974.966796875 386.6930236816406 0 0 0
10064.6630859375 24000.349609375 387.1024169921875 0 0 0
11617.7021484375 24009.91796875 387.2567443847656 0 0 0
13184.7958984375 24042.86328125 387.7881164550781 0 0 0
14766.6845703125 24093.01171875 388.5969543457031 0 0 0
16444.224609375 24274.806640625 391.5291442871094 0 0 0
18238.05078125 24581.720703125 396.4793701171875 0 0 0
19646.8515625 24362.09375 392.93701171875 0 0 0
22061.185546875 25329.509765625 408.54046630859375 0 0 0
27250.767578125 29130.130859375 469.8408203125 0 0 0
30977.314453125 30977.314453125 499.63409423828125 209 209 211
33299.72265625 31281.55859375 504.541259765625 229 229 231
35599.53125 31531.015625 508.56475830078125 229 229 229
37787.38671875 31659.703125 510.640380859375 243 243 243
39928.78515625 31738.265625 511.9075012207031 254 254 254
42049.15234375 31793.26171875 512.7945556640625 255 255 255
44124.5625 31810.73046875 513.0762939453125 255 255 255
46186.34375 31817.2578125 513.1815795898438 255 255 255
48257.93359375 31829.701171875 513.3822631835938 255 255 255
50314.296875 31831.494140625 513.4111938476562 255 255 255
52349.5390625 31820.30859375 513.2307739257812 255 255 255
